5.287641 30.000000 19.994257
8.160177 30.000000 0.215368
7.775539 30.000000 1.060417
9.359547 30.000000 14.119240
1.257904 30.000000 16.165658
9.193227 30.000000 4.556757
4.088813 30.000000 12.765121
4.052582 30.000000 2.249617
6.514119 30.000000 3.462106
0.677460 30.000000 12.217651
0.397692 30.000000 15.617167
0.161120 30.000000 17.104833
7.269988 30.000000 19.505134
6.786971 30.000000 4.272616
6.908158 30.000000 11.344010
3.156658 30.000000 5.489093
7.173979 30.000000 7.465807
9.920157 30.000000 17.036046
6.817655 30.000000 8.156440
1.446796 30.000000 12.676475
1.636673 30.000000 16.485178
3.991956 30.000000 11.456813
5.514771 30.000000 17.868313
2.631038 30.000000 7.372746
7.007554 30.000000 18.263619
4.703806 30.000000 10.570545
8.473852 30.000000 10.958329
3.573059 30.000000 4.256906
7.330300 30.000000 16.631145
2.236937 30.000000 11.932397
4.070032 30.000000 1.107285
9.242498 30.000000 7.877150
2.980209 30.000000 9.769234
2.908693 30.000000 16.138646
3.066557 30.000000 12.341781
0.486416 30.000000 19.127168
5.654205 30.000000 13.653356
3.725522 30.000000 7.687511
5.641228 30.000000 11.528399
2.671337 30.000000 15.064292
7.259849 30.000000 13.405230
6.352444 30.000000 11.447005
7.307811 30.000000 6.816958
2.770120 30.000000 6.983646
0.554989 30.000000 14.566911
6.691313 30.000000 7.181012
4.825557 30.000000 16.627116
4.110420 30.000000 0.747226
0.362759 30.000000 7.746176
5.790457 30.000000 10.683288
2.006912 30.000000 19.829770
9.679859 30.000000 2.664452
7.226202 30.000000 9.201619
0.272191 30.000000 10.384943
7.540365 30.000000 15.707766
1.765128 30.000000 6.162121
8.717302 30.000000 10.102238
6.164555 30.000000 6.757069
5.116068 30.000000 10.007085
2.850350 30.000000 9.727513
6.107160 30.000000 17.263820
8.084461 30.000000 8.566177
4.548420 30.000000 14.036704
6.063066 30.000000 6.100667
3.019719 30.000000 6.146505
4.483872 30.000000 4.322297
6.871696 30.000000 8.106348
0.339440 30.000000 15.125708
5.963610 30.000000 10.341768
5.758852 30.000000 6.012424
9.788132 30.000000 17.776387
2.560463 30.000000 5.010939
7.520291 30.000000 14.591415
8.842000 30.000000 1.830511
1.538787 30.000000 17.722598
1.060049 30.000000 10.401968
6.542567 30.000000 15.652968
7.487747 30.000000 19.696085
7.716511 30.000000 8.741467
8.350892 30.000000 11.459045
7.012908 30.000000 18.187333
5.874021 30.000000 1.774471
2.222750 30.000000 12.153847
0.287487 30.000000 4.287921
7.377168 30.000000 6.516380
5.294194 30.000000 5.870054
3.415867 30.000000 18.318595
1.856321 30.000000 4.901070
6.810370 30.000000 8.554145
6.740909 30.000000 19.783573
9.819100 30.000000 8.023491
1.004215 30.000000 11.314030
0.450022 30.000000 16.708022
9.458579 30.000000 16.501266
8.041950 30.000000 2.217647
1.698005 30.000000 4.519672
2.571107 30.000000 9.270620
6.515491 30.000000 4.452777
1.979761 30.000000 15.835491
0.665241 30.000000 15.918341
4.017853 30.000000 3.664782
1.922962 30.000000 17.003757
9.712433 30.000000 3.359872
3.949217 30.000000 5.949587
8.261739 30.000000 13.835010
5.766944 30.000000 7.304887
6.783848 30.000000 2.388974
4.757907 30.000000 10.724725
3.512020 30.000000 16.830495
9.807071 30.000000 8.253866
8.047780 30.000000 2.637339
3.394087 30.000000 18.809575
0.094408 30.000000 4.818887
9.542382 30.000000 2.506202
0.630740 30.000000 12.586770
3.407478 30.000000 4.165857
0.264815 30.000000 11.622080
7.466277 30.000000 8.912641
5.357146 30.000000 5.171266
7.146887 30.000000 3.306828
8.789736 30.000000 3.873842
7.775288 30.000000 4.836448
2.075712 30.000000 4.255300
0.991222 30.000000 10.949975
8.278919 30.000000 16.879700
0.186995 30.000000 1.137152
9.586438 30.000000 1.199313
7.216041 30.000000 3.871342
9.093732 30.000000 8.296553
9.620002 30.000000 1.279428
7.848266 30.000000 12.459046
2.996962 30.000000 1.936418
2.083161 30.000000 3.418657
8.918314 30.000000 11.514933
5.129861 30.000000 16.818003
3.080547 30.000000 1.820911
1.511861 30.000000 1.784193
6.992356 30.000000 19.630006
5.884366 30.000000 16.828415
9.144774 30.000000 15.429025
8.904419 30.000000 16.304082
5.598495 30.000000 10.341403
0.091673 30.000000 5.823465
5.775825 30.000000 13.753296
4.031285 30.000000 3.679905
9.007437 30.000000 3.630949
9.433936 30.000000 9.942168
8.981714 30.000000 18.668834
2.405141 30.000000 15.607931
0.841941 30.000000 2.079599
3.968764 30.000000 16.690701
9.753695 30.000000 3.585366
9.153358 30.000000 2.940346
6.307601 30.000000 6.937400
6.983394 30.000000 2.231427
0.258632 30.000000 7.108903
2.878246 30.000000 9.128018
9.883685 30.000000 8.197729
7.532685 30.000000 6.498050
6.654979 30.000000 11.103715
1.822341 30.000000 3.903805
2.560832 30.000000 14.685084
7.024385 30.000000 15.558995
5.919985 30.000000 15.977169
0.531950 30.000000 17.214216
9.228039 30.000000 8.516366
6.985161 30.000000 0.152565
2.231356 30.000000 17.342443
4.838015 30.000000 4.477270
5.187020 30.000000 3.399875
0.681748 30.000000 19.706630
1.406979 30.000000 18.930894
2.841015 30.000000 17.688205
6.070991 30.000000 7.746041
0.261108 30.000000 10.330851
2.433764 30.000000 7.380210
8.975769 30.000000 12.996987
1.255048 30.000000 13.479518
4.359642 30.000000 7.499251
3.484810 30.000000 7.947263
9.028490 30.000000 7.371510
6.662715 30.000000 4.120203
0.645726 30.000000 8.881956
9.705288 30.000000 13.105827
8.063290 30.000000 17.445299
2.434624 30.000000 18.427908
9.156577 30.000000 8.414281
5.933424 30.000000 13.353601
4.818282 30.000000 10.918844
2.586668 30.000000 15.061872
9.729087 30.000000 0.850827
6.649646 30.000000 11.520757
4.341463 30.000000 6.416488
1.812787 30.000000 15.465082
3.535955 30.000000 9.006405
7.828498 30.000000 12.412997
3.160438 30.000000 12.172472
4.262828 30.000000 12.689201
1.564868 30.000000 11.461223
0.602262 30.000000 18.052244
3.004318 30.000000 15.939715
2.844416 30.000000 17.277397
1.467078 30.000000 14.538671
8.322526 30.000000 2.463943
7.040017 30.000000 0.861227
9.662313 30.000000 2.956405
7.179873 30.000000 5.671036
6.895111 30.000000 6.670274
2.830540 30.000000 6.566198
1.361449 30.000000 13.580874
9.700390 30.000000 12.376502
7.112027 30.000000 10.608006
3.273427 30.000000 4.334438
8.960581 30.000000 0.583623
9.205917 30.000000 3.718490
6.538105 30.000000 4.638517
4.727872 30.000000 18.094914
5.954581 30.000000 6.142390
3.972080 30.000000 7.272542
9.505327 30.000000 10.223687
0.342521 30.000000 6.598818
4.134088 30.000000 11.112863
2.859191 30.000000 10.673817
3.548562 30.000000 17.001891
0.717291 30.000000 8.832488
7.483415 30.000000 6.295670
5.279807 30.000000 17.903342
7.968790 30.000000 17.712211
8.884350 30.000000 7.398180
7.570859 30.000000 8.453983
2.800945 30.000000 9.139277
9.616857 30.000000 4.227173
7.315184 30.000000 15.493810
0.903918 30.000000 11.121353
8.212413 30.000000 13.183060
1.563192 30.000000 2.935729
7.512705 30.000000 4.781850
7.626657 30.000000 7.803901
7.250112 30.000000 10.353988
0.159310 30.000000 15.085215
4.695200 30.000000 14.112410
0.018419 30.000000 1.984084
0.275533 30.000000 8.745062
7.687001 30.000000 6.037530
9.000542 30.000000 14.953412
8.090064 30.000000 13.515157
2.004917 30.000000 5.877597
9.444305 30.000000 3.863897
7.574422 30.000000 16.582068
1.286623 30.000000 6.335901
5.659369 30.000000 14.881058
2.433135 30.000000 3.625963
9.812839 30.000000 10.192064
6.480830 30.000000 18.088608
6.995765 30.000000 7.586291
3.228137 30.000000 18.498521
3.968708 30.000000 7.818541
6.354342 30.000000 9.885134
2.455907 30.000000 7.303740
8.907853 30.000000 0.454190
4.960666 30.000000 13.355045
6.165551 30.000000 4.116914
1.878948 30.000000 5.815530
9.876404 30.000000 9.291555
6.736759 30.000000 16.496377
6.687490 30.000000 14.246293
0.756498 30.000000 8.008581
9.192450 30.000000 0.916840
2.994424 30.000000 15.091940
8.016833 30.000000 15.955821
8.896135 30.000000 1.407360
8.305991 30.000000 1.611503
9.803032 30.000000 4.285016
4.535709 30.000000 10.303203
9.517099 30.000000 13.085436
2.290148 30.000000 14.746298
6.146470 30.000000 18.199571
3.685198 30.000000 17.800706
6.255682 30.000000 8.882527
2.159583 30.000000 0.426311
2.645263 30.000000 14.801386
1.873222 30.000000 16.689254
3.965013 30.000000 11.753717
7.398742 30.000000 12.547098
0.255123 30.000000 9.092999
2.467472 30.000000 12.531557
0.818269 30.000000 5.717492
5.719042 30.000000 13.433268
8.542165 30.000000 7.935935
0.225355 30.000000 4.473714
2.113160 30.000000 9.230951
4.303819 30.000000 0.140357
5.249050 30.000000 1.967321
7.921878 30.000000 13.893267
9.322076 30.000000 13.085258
1.315742 30.000000 6.077578
7.488759 30.000000 8.244727
9.398120 30.000000 14.758213
9.022792 30.000000 16.935665
8.793843 30.000000 8.897822
4.720315 30.000000 17.286666
2.911752 30.000000 10.689775
6.859213 30.000000 2.040614
4.422149 30.000000 14.949301
4.383269 30.000000 6.478668
6.403045 30.000000 11.861692
3.596881 30.000000 19.552160
6.349320 30.000000 14.647357
8.549493 30.000000 2.709107
2.067402 30.000000 3.974483
9.832911 30.000000 15.187182
9.486931 30.000000 4.482003
4.165500 30.000000 13.445571
1.523145 30.000000 10.235175
9.705157 30.000000 3.033263
0.751499 30.000000 10.020724
9.669638 30.000000 18.886967
1.570371 30.000000 8.456751
6.913843 30.000000 16.983648
3.345290 30.000000 2.771687
2.644472 30.000000 1.869686
6.892894 30.000000 19.503034
2.338051 30.000000 8.114729
7.521440 30.000000 6.052753
9.103858 30.000000 19.896673
3.137233 30.000000 16.855275
8.184740 30.000000 0.045983
9.805924 30.000000 1.863957
4.283019 30.000000 13.885562
0.810721 30.000000 11.294228
2.836704 30.000000 18.951643
6.360669 30.000000 0.901519
1.987560 30.000000 18.487942
1.406003 30.000000 6.559373
6.402128 30.000000 14.734378
9.164789 30.000000 13.596207
7.634921 30.000000 12.043486
0.580840 30.000000 1.071509
6.877589 30.000000 19.196932
5.747765 30.000000 7.807357
6.607907 30.000000 0.737445
9.871391 30.000000 6.811195
4.984198 30.000000 16.763410
9.434072 30.000000 4.082067
1.868484 30.000000 8.814925
0.276285 30.000000 9.045719
6.004632 30.000000 1.102143
8.309738 30.000000 8.205610
4.459786 30.000000 14.130465
4.429470 30.000000 8.062706
0.623007 30.000000 4.763196
9.364530 30.000000 6.468431
6.548780 30.000000 12.633712
3.551656 30.000000 2.849484
9.260924 30.000000 3.710355
9.179943 30.000000 11.474708
7.316721 30.000000 8.310495
6.858569 30.000000 9.693718
4.264416 30.000000 2.697886
8.728592 30.000000 7.929174
7.444048 30.000000 8.490886
8.692792 30.000000 9.365939
0.697523 30.000000 17.606067
8.761570 30.000000 5.156153
3.600610 30.000000 4.818209
9.774395 30.000000 4.786498
0.366499 30.000000 11.430006
3.584292 30.000000 13.030373
5.846104 30.000000 1.924128
5.833358 30.000000 19.893729
4.803229 30.000000 19.188597
2.820552 30.000000 0.010847
8.512628 30.000000 8.774422
0.400827 30.000000 17.327406
4.006734 30.000000 5.191008
0.187930 30.000000 18.945660
9.432268 30.000000 8.913634
1.577919 30.000000 7.281396
0.029695 30.000000 6.380035
9.392411 30.000000 13.795758
8.365202 30.000000 17.160860
2.943428 30.000000 16.772547
5.445531 30.000000 3.220228
8.128497 30.000000 18.175530
7.086063 30.000000 16.413190
7.734340 30.000000 9.544334
7.509623 30.000000 7.048749
1.830866 30.000000 19.844708
3.234207 30.000000 5.915033
5.855588 30.000000 5.133568
9.095923 30.000000 2.951958
2.103411 30.000000 19.840345
8.993868 30.000000 6.234023
7.292404 30.000000 12.048101
4.983794 30.000000 16.072321
7.629818 30.000000 14.295898
6.211252 30.000000 17.197711
3.681840 30.000000 13.743081
1.287326 30.000000 13.496284
9.877683 30.000000 2.844454
8.224115 30.000000 14.246941
3.074149 30.000000 11.708827
9.587719 30.000000 18.571865
2.956345 30.000000 1.218642
3.423603 30.000000 16.158269
9.779097 30.000000 17.059510
9.325210 30.000000 16.371216
8.377346 30.000000 19.058871
1.941508 30.000000 17.991582
2.946755 30.000000 0.107333
0.791891 30.000000 15.000993
0.598866 30.000000 1.672840
4.954549 30.000000 6.735191
3.663689 30.000000 19.240227
5.625239 30.000000 0.879700
4.505327 30.000000 6.194735
8.958893 30.000000 8.317095
2.336328 30.000000 12.510146
8.008075 30.000000 2.095221
1.377920 30.000000 8.433564
1.438913 30.000000 7.052495
7.801099 30.000000 16.032604
6.436016 30.000000 15.331148
9.572364 30.000000 12.107051
2.465827 30.000000 2.709565
7.679368 30.000000 1.979088
3.684600 30.000000 15.308998
1.396929 30.000000 2.876389
7.189456 30.000000 18.486025
8.033637 30.000000 5.651513
1.349082 30.000000 13.564026
9.140915 30.000000 14.385610
9.012663 30.000000 6.189762
2.615521 30.000000 0.366306
5.760550 30.000000 1.238033
9.042582 30.000000 6.040529
6.423012 30.000000 16.484256
5.862697 30.000000 0.694892
4.994588 30.000000 11.090872
3.931003 30.000000 4.575108
4.023527 30.000000 19.008293
4.051182 30.000000 10.732868
0.136878 30.000000 0.608535
6.036879 30.000000 18.358469
8.241431 30.000000 12.892918
6.043339 30.000000 16.628216
9.282908 30.000000 8.031662
3.977119 30.000000 16.737162
7.519248 30.000000 4.378384
6.898134 30.000000 12.642373
4.228748 30.000000 14.722337
3.821981 30.000000 9.541519
0.728692 30.000000 9.755826
7.118436 30.000000 16.840060
7.368092 30.000000 4.791838
3.881496 30.000000 12.455295
1.383662 30.000000 13.251558
6.239371 30.000000 18.073876
1.427815 30.000000 4.564092
6.150931 30.000000 7.479747
0.382478 30.000000 12.328230
7.949473 30.000000 11.832485
4.622193 30.000000 4.533733
5.968923 30.000000 0.139515
7.605334 30.000000 14.078374
7.677598 30.000000 6.363778
1.123844 30.000000 7.944691
7.978727 30.000000 14.839623
6.102569 30.000000 5.438852
4.954344 30.000000 13.417196
0.320548 30.000000 15.267700
3.306173 30.000000 3.066638
9.376058 30.000000 14.359939
2.453156 30.000000 2.285290
4.716727 30.000000 17.746324
1.181094 30.000000 3.922334
6.552368 30.000000 14.406872
6.912188 30.000000 9.455965
2.654447 30.000000 1.294147
8.439317 30.000000 4.350849
7.598459 30.000000 4.735091
0.265450 30.000000 10.123934
9.095900 30.000000 4.944425
3.762039 30.000000 6.316408
7.170838 30.000000 9.255803
5.836532 30.000000 13.174303
8.942755 30.000000 5.059738
8.535623 30.000000 14.605689
5.099519 30.000000 11.923417
4.657188 30.000000 5.700848
1.432410 30.000000 9.352011
6.903445 30.000000 1.937788
6.593854 30.000000 1.130501
9.527910 30.000000 19.738473
4.473060 30.000000 1.346064
3.893167 30.000000 13.252773
4.009145 30.000000 2.255007
0.882722 30.000000 11.815228
9.402964 30.000000 14.159286
1.223809 30.000000 1.217935
3.818445 30.000000 7.444873
0.096128 30.000000 4.782130
9.463951 30.000000 13.378706
0.674626 30.000000 8.864372
7.561842 30.000000 8.013345
4.403523 30.000000 19.939143
7.312808 30.000000 2.489260
7.446453 30.000000 7.866136
6.635227 30.000000 11.728754
0.747113 30.000000 19.817751
4.450796 30.000000 0.674207
1.514714 30.000000 12.530596
1.525859 30.000000 9.157891
8.680135 30.000000 15.869330
2.067366 30.000000 16.460252
8.507836 30.000000 6.215023
1.023067 30.000000 1.689146
5.281717 30.000000 1.861602
6.707390 30.000000 16.397524
8.837360 30.000000 14.986493
5.723438 30.000000 13.014964
7.791103 30.000000 2.964261
8.288093 30.000000 15.017442
7.814621 30.000000 17.432073
6.805128 30.000000 4.447598
2.934490 30.000000 17.295824
6.581510 30.000000 14.076748
6.054434 30.000000 11.883712
1.049834 30.000000 1.278694
3.884799 30.000000 18.809838
4.113638 30.000000 8.122089
0.067650 30.000000 2.691470
2.122936 30.000000 0.839947
4.918174 30.000000 13.433697
5.687702 30.000000 7.124452
9.837365 30.000000 4.628932
0.354341 30.000000 18.819951
4.488875 30.000000 13.832848
0.149191 30.000000 5.756609
3.787654 30.000000 17.037815
0.649732 30.000000 17.125184
8.564805 30.000000 1.575706
4.325025 30.000000 7.933040
1.680685 30.000000 8.699307
8.539368 30.000000 15.406774
7.228286 30.000000 4.170171
4.185521 30.000000 14.558856
0.066100 30.000000 12.277314
8.557382 30.000000 15.942186
4.754604 30.000000 17.011115
6.586790 30.000000 1.705587
9.557673 30.000000 19.168333
3.975200 30.000000 8.884654
2.161239 30.000000 7.168708
1.775859 30.000000 19.444839
2.356029 30.000000 6.724495
7.460759 30.000000 2.391852
1.854194 30.000000 5.599869
5.418721 30.000000 11.196916
1.585480 30.000000 19.522385
7.559658 30.000000 18.862399
9.493369 30.000000 14.140098
9.933320 30.000000 8.079391
0.705974 30.000000 16.278509
9.149454 30.000000 13.404745
6.684056 30.000000 19.899236
1.015536 30.000000 8.830949
8.858477 30.000000 9.952310
9.163710 30.000000 5.624505
2.435306 30.000000 2.026460
7.842149 30.000000 15.485799
8.145661 30.000000 2.986978
4.115894 30.000000 17.613407
2.075450 30.000000 19.857715
3.877846 30.000000 6.734526
9.011570 30.000000 4.980133
2.036687 30.000000 10.114026
1.016011 30.000000 16.543937
6.203417 30.000000 14.857863
0.705904 30.000000 14.743391
1.092746 30.000000 11.158382
0.627504 30.000000 0.534856
6.678150 30.000000 19.146408
7.500572 30.000000 6.767040
9.467210 30.000000 17.162348
6.601262 30.000000 7.427666
3.349688 30.000000 3.377689
2.699590 30.000000 9.128497
4.245608 30.000000 7.593758
7.630154 30.000000 3.685549
8.145945 30.000000 11.778936
0.798112 30.000000 12.411120
8.670372 30.000000 0.505764
2.875960 30.000000 9.871359
2.456390 30.000000 5.041381
3.278756 30.000000 0.454081
8.521883 30.000000 10.825945
4.203847 30.000000 10.247745
9.835595 30.000000 0.443131
0.696510 30.000000 11.954249
2.398517 30.000000 1.641271
9.515536 30.000000 12.244551
7.944718 30.000000 16.951681
0.708643 30.000000 10.616359
1.063967 30.000000 2.675995
3.652801 30.000000 13.687276
3.285876 30.000000 7.483394
3.005227 30.000000 7.186014
0.943321 30.000000 13.776457
2.483346 30.000000 3.399993
5.873174 30.000000 19.707913
6.823995 30.000000 12.516589
9.456596 30.000000 0.978339
9.675952 30.000000 17.136505
8.728104 30.000000 17.157846
7.706435 30.000000 6.138841
7.575685 30.000000 4.036735
4.064001 30.000000 7.833269
7.783223 30.000000 13.288811
6.453374 30.000000 2.045287
1.035087 30.000000 4.647732
0.827899 30.000000 10.440600
3.879872 30.000000 6.182715
0.591193 30.000000 12.998492
6.908049 30.000000 18.294352
0.469958 30.000000 10.880111
0.101611 30.000000 18.283211
8.043744 30.000000 10.496071
0.926372 30.000000 14.978949
6.914990 30.000000 6.076056
4.585856 30.000000 5.692995
5.872257 30.000000 17.575842
4.173780 30.000000 14.724646
2.499317 30.000000 6.262982
0.962877 30.000000 16.522628
2.124123 30.000000 1.841878
7.681905 30.000000 6.358439
0.853645 30.000000 3.544921
4.154164 30.000000 1.505498
9.520771 30.000000 1.225277
9.606864 30.000000 5.927697
5.024302 30.000000 9.880463
0.526757 30.000000 17.284121
9.629990 30.000000 6.846701
6.191074 30.000000 17.303038
5.858507 30.000000 19.746575
5.832457 30.000000 18.998607
6.682565 30.000000 15.529087
8.001691 30.000000 9.075393
5.511826 30.000000 19.362659
2.007267 30.000000 11.597357
6.604435 30.000000 7.080038
4.715519 30.000000 10.739893
2.625380 30.000000 9.640551
4.384278 30.000000 5.306225
3.491783 30.000000 11.707346
1.617052 30.000000 12.469953
1.034916 30.000000 16.181304
5.676554 30.000000 18.037226
0.882356 30.000000 6.627614
1.750356 30.000000 3.996525
7.428513 30.000000 16.044351
9.063159 30.000000 16.168146
8.737040 30.000000 17.019906
5.284092 30.000000 7.675011
0.116464 30.000000 15.659538
9.080331 30.000000 15.737254
5.089912 30.000000 16.975323
4.881406 30.000000 13.613834
0.706242 30.000000 18.501984
9.788141 30.000000 6.662635
8.491599 30.000000 16.375785
5.137095 30.000000 6.871202
6.799343 30.000000 10.104381
9.691030 30.000000 5.003762
7.385652 30.000000 2.875712
9.637434 30.000000 7.209140
2.408714 30.000000 5.537339
1.455782 30.000000 3.517434
8.069543 30.000000 19.584969
7.828619 30.000000 15.461880
0.404096 30.000000 7.767009
0.232098 30.000000 1.351235
1.916283 30.000000 1.778829
2.164878 30.000000 8.583888
8.860894 30.000000 7.709845
6.997271 30.000000 14.696389
0.247346 30.000000 9.352636
0.749304 30.000000 0.828339
6.805976 30.000000 18.345703
2.546864 30.000000 3.828697
7.482275 30.000000 7.663958
6.170949 30.000000 16.405884
3.425147 30.000000 18.259570
1.279190 30.000000 13.800606
7.638569 30.000000 0.030550
5.587591 30.000000 19.382975
3.894475 30.000000 12.071913
0.299461 30.000000 5.196383
1.803645 30.000000 19.451404
7.992898 30.000000 16.043737
4.817071 30.000000 7.945205
6.924416 30.000000 7.740340
6.225423 30.000000 15.780530
0.209829 30.000000 19.593071
0.678935 30.000000 0.337470
7.660788 30.000000 17.076281
5.343941 30.000000 3.237467
6.019528 30.000000 9.304662
3.730333 30.000000 13.899254
6.527091 30.000000 15.490837
1.786530 30.000000 9.547798
9.491198 30.000000 6.858903
0.658042 30.000000 5.931002
0.628380 30.000000 6.119424
1.741157 30.000000 7.589702
7.002073 30.000000 18.109475
1.309787 30.000000 8.656476
6.504423 30.000000 13.898105
5.170308 30.000000 13.244386
8.654051 30.000000 15.090790
2.698402 30.000000 0.418843
4.988548 30.000000 3.303174
8.062048 30.000000 12.665685
7.808026 30.000000 1.284922
2.556063 30.000000 8.920896
6.198247 30.000000 13.929954
7.293275 30.000000 1.236930
9.023172 30.000000 13.028906
7.838214 30.000000 15.818421
1.463036 30.000000 8.154896
5.740674 30.000000 10.572594
0.767863 30.000000 13.646803
5.191889 30.000000 2.316392
5.788963 30.000000 0.849864
1.643483 30.000000 10.270427
3.605567 30.000000 2.949490
7.136977 30.000000 19.736121
5.253940 30.000000 14.388088
2.106259 30.000000 6.346901
7.868511 30.000000 4.859409
2.869999 30.000000 3.537675
9.969806 30.000000 18.520718
3.924143 30.000000 9.878100
3.914859 30.000000 14.470347
8.377348 30.000000 17.150500
0.238751 30.000000 11.235750
4.592251 30.000000 19.406640
1.074709 30.000000 11.646471
9.966566 30.000000 18.539217
5.846691 30.000000 19.605414
2.349138 30.000000 11.971549
5.253742 30.000000 14.070186
3.920958 30.000000 19.643580
8.592564 30.000000 11.425789
6.833843 30.000000 9.638308
1.484972 30.000000 16.692512
0.582993 30.000000 6.865152
8.190934 30.000000 1.762714
8.006730 30.000000 6.590355
3.110110 30.000000 19.234385
2.841869 30.000000 7.284607
7.491525 30.000000 15.636913
9.558421 30.000000 2.321552
2.627810 30.000000 9.517586
3.056647 30.000000 10.891716
7.065225 30.000000 18.256265
4.074226 30.000000 13.506877
8.135536 30.000000 1.115482
7.680108 30.000000 2.395976
9.527065 30.000000 12.416547
5.110895 30.000000 2.516865
7.792963 30.000000 6.228257
0.404018 30.000000 0.608772
7.405204 30.000000 2.552812
2.509357 30.000000 0.169485
2.906931 30.000000 9.497370
9.388540 30.000000 11.540863
6.233263 30.000000 9.136335
7.927416 30.000000 3.200477
2.382243 30.000000 14.024762
1.938523 30.000000 2.452652
8.476832 30.000000 13.508405
6.972386 30.000000 3.695519
1.535198 30.000000 18.004382
1.719935 30.000000 12.716063
0.321250 30.000000 6.510898
8.543357 30.000000 7.393607
4.147023 30.000000 7.807214
0.685815 30.000000 2.060518
3.466290 30.000000 14.915808
0.628459 30.000000 5.076778
5.645043 30.000000 12.994762
0.580723 30.000000 16.146097
4.175220 30.000000 0.294216
4.901630 30.000000 11.653790
8.084765 30.000000 4.225999
5.012404 30.000000 8.775161
5.716064 30.000000 8.764691
2.926865 30.000000 7.331865
2.040820 30.000000 7.283186
5.882825 30.000000 12.004377
8.969184 30.000000 7.436155
6.026015 30.000000 0.261894
2.731925 30.000000 8.954876
4.545625 30.000000 15.216955
0.856786 30.000000 7.197809
2.250753 30.000000 13.280379
3.006113 30.000000 9.646497
1.536134 30.000000 17.641232
7.494081 30.000000 2.569493
2.908573 30.000000 9.750901
3.283095 30.000000 12.497008
4.924191 30.000000 9.723191
2.958762 30.000000 0.270234
0.930639 30.000000 5.724359
2.741335 30.000000 11.874424
9.775254 30.000000 0.733420
4.054513 30.000000 12.531020
3.440638 30.000000 14.406622
9.171101 30.000000 11.030028
1.130425 30.000000 17.144849
2.066511 30.000000 3.794332
2.217657 30.000000 13.652333
8.237871 30.000000 5.170550
9.783538 30.000000 11.512827
7.146906 30.000000 6.522199
8.084183 30.000000 19.192263
1.428011 30.000000 19.275295
6.401379 30.000000 14.093759
2.590411 30.000000 17.450093
9.368171 30.000000 12.953879
4.880482 30.000000 10.107369
3.190309 30.000000 13.488213
5.005832 30.000000 14.281195
7.980572 30.000000 13.642562
3.890573 30.000000 15.853785
1.712261 30.000000 3.387364
3.997131 30.000000 8.838788
0.236810 30.000000 2.418748
7.773323 30.000000 16.961275
6.572845 30.000000 3.877133
7.214224 30.000000 8.729994
5.296476 30.000000 0.102339
8.297876 30.000000 14.104567
3.479301 30.000000 9.411481
3.821425 30.000000 1.725772
4.173960 30.000000 12.238497
9.139950 30.000000 12.767177
8.561312 30.000000 18.842699
9.245155 30.000000 7.295313
9.950498 30.000000 19.922753
8.763285 30.000000 6.748612
5.972864 30.000000 3.289691
7.304450 30.000000 12.144290
5.631228 30.000000 17.480318
2.750682 30.000000 10.657418
8.415306 30.000000 14.146560
1.004780 30.000000 15.128231
8.098290 30.000000 18.207013
1.170975 30.000000 9.963298
5.782916 30.000000 8.815861
7.474376 30.000000 7.729996
9.008177 30.000000 11.626078
0.902981 30.000000 17.845039
6.534600 30.000000 8.515732
1.055148 30.000000 17.353727
4.859430 30.000000 17.072857
9.392445 30.000000 11.211518
8.869785 30.000000 14.326550
9.137846 30.000000 2.900028
9.314487 30.000000 13.599809
9.448486 30.000000 8.062646
5.133668 30.000000 6.443194
9.398328 30.000000 15.742213
1.573838 30.000000 15.235394
9.181133 30.000000 16.099160
1.743585 30.000000 1.910134
9.488476 30.000000 8.282528
3.928951 30.000000 14.474742
2.085195 30.000000 13.152587
0.748445 30.000000 1.563594
6.886398 30.000000 10.105860
9.812918 30.000000 11.375881
7.534675 30.000000 11.222975
4.565626 30.000000 0.845122
3.078652 30.000000 3.143277
8.544517 30.000000 16.157519
7.549025 30.000000 5.426196
6.764092 30.000000 5.340066
7.981971 30.000000 12.718365
1.875178 30.000000 10.369054
0.262190 30.000000 5.089065
6.134254 30.000000 4.943864
1.733021 30.000000 17.375589
8.473153 30.000000 17.440048
9.872784 30.000000 6.922401
5.451559 30.000000 4.562531
7.973131 30.000000 10.410558
7.785233 30.000000 4.868640
8.094823 30.000000 18.117239
0.592432 30.000000 1.095447
1.211189 30.000000 10.130612
2.707155 55.796274 17.970741
-4.990406 59.690413 7.526784
-4.321742 62.514467 19.537618
2.707628 64.203421 3.487472
4.566491 57.963542 10.975939
-3.304154 56.247326 13.907965
-3.178041 63.860059 8.039109
4.513506 57.848660 17.830875
-2.738750 55.816790 12.528389
4.313446 57.471328 12.960004
-4.932132 59.178978 6.859430
3.507425 56.436579 4.504229
-4.099546 62.862469 8.854475
4.373438 57.576564 3.082684
4.990078 60.314830 7.827160
-2.859440 64.101659 8.586967
1.079250 64.882133 4.268358
4.954922 60.669887 10.487350
3.532730 63.538335 16.509311
4.955229 60.667615 15.504425
-2.454029 64.356345 11.399040
-2.285273 55.552807 18.420033
4.697629 61.712390 13.017484
1.264455 64.837474 7.034712
-3.644746 63.422839 1.402383
1.247299 55.158074 14.719306
4.949770 59.293050 18.181401
2.379639 55.602578 14.049909
2.320262 55.570961 0.928536
1.331400 64.819479 18.976004
-4.471160 62.238018 7.402698
-4.381678 57.591494 8.530491
0.885454 64.920973 18.956170
-4.995757 60.205949 14.742432
3.783463 56.731145 13.523800
2.913324 64.063563 3.765911
-1.728241 55.308179 4.010667
1.430560 55.209019 12.555816
2.506656 64.326277 17.154935
4.966828 59.425002 14.439658
-4.997017 59.827307 7.401316
-3.799987 56.750370 10.330982
-2.284655 64.447511 13.181063
-4.968576 60.559689 14.239993
-4.128456 62.820611 16.911982
4.915925 59.086936 0.292247
2.008885 55.421312 14.627006
-4.690856 58.269141 19.799072
-4.889863 61.043667 6.060083
4.164324 62.767382 4.724123
-4.999945 59.976509 11.349884
-3.288570 56.233661 2.078470
4.999270 59.914559 14.279997
-1.869082 64.637513 15.476806
4.524430 57.871731 11.129080
2.899330 55.926441 9.100286
3.057714 63.956057 2.685812
2.353906 55.588750 19.584341
-1.987228 55.411871 16.410308
3.109850 63.915206 18.997495
-4.819895 61.329892 16.492231
4.999737 60.051324 4.962937
0.641258 55.041292 1.990816
-2.924816 64.055299 9.373152
3.503912 63.566876 1.890723
-4.704736 61.692768 14.561080
-4.851219 61.210650 1.990163
4.740392 61.590183 14.133445
3.138235 56.107509 9.541894
-4.757994 58.463286 19.724710
-4.664524 58.199385 19.157578
-0.777429 64.939191 4.109043
1.509780 64.766609 17.905253
-4.961660 60.618004 17.244208
2.671158 55.773310 8.559075
-0.705418 55.050012 10.046187
1.883751 64.631575 8.419721
-2.538668 55.692429 0.915611
4.448322 57.716924 1.419084
4.711972 58.327480 2.915034
3.209688 56.166216 10.708427
3.756097 56.699738 19.162235
4.972727 59.478480 11.013625
-4.321349 62.515143 14.675614
0.903174 64.917751 18.826020
4.852746 61.204515 18.003624
-0.611501 64.962466 15.462022
0.744571 64.944251 19.135508
4.986103 60.372534 3.668688
-0.448392 64.979854 8.655551
1.046925 55.110834 12.354957
1.066707 55.115112 9.300611
-1.197087 55.145416 2.552827
-0.853707 64.926579 3.682102
-4.834220 61.276837 4.711847
-4.928610 60.841903 16.603218
-0.486563 64.976269 16.486181
4.762580 61.522441 17.521777
2.412143 55.620324 12.792842
-0.131996 64.998257 6.768431
-2.101966 64.536710 16.940720
4.227036 62.670612 4.624461
1.013092 55.103711 11.521520
-4.849595 58.782859 16.113045
-3.034992 63.973515 9.416322
-2.614457 64.261996 1.380149
-3.221892 56.176466 0.806764
4.839736 61.255769 7.918337
4.966105 60.581211 13.794562
-3.425403 56.357663 17.394695
4.994408 59.763594 14.693343
-4.990201 60.312882 6.721683
4.371696 57.573423 12.697038
-3.353157 56.291046 12.090171
-0.318342 55.010144 16.784195
4.002150 62.997131 17.266895
-3.854730 56.815497 11.079242
-3.215651 56.171216 3.792895
3.693903 56.630270 4.277249
4.961037 59.377010 4.132651
4.009075 62.987861 2.064504
-0.089730 55.000805 16.992197
1.984843 55.410839 17.343683
-0.599621 64.963915 18.977606
-1.013669 64.896169 9.690721
-3.360454 63.702344 1.683649
2.460700 64.352580 19.901707
3.757522 63.298640 14.304681
-4.114904 57.159654 7.887663
4.885174 61.065399 1.544086
-0.395086 64.984366 19.469848
-2.873620 55.908263 17.624835
0.967557 55.094510 8.061810
0.208627 55.004354 10.157038
2.519132 55.680975 8.008924
4.305020 62.542992 11.399100
-1.954202 55.397708 3.753720
0.105003 64.998897 15.831582
-4.536041 57.896591 19.331267
-1.031102 55.107472 11.101024
3.089075 56.068382 8.540203
1.877723 55.365978 17.138731
-1.229544 55.153535 3.401861
3.416278 56.349104 11.499876
4.739967 58.408551 0.628005
4.846984 61.227494 3.478908
-4.390814 57.608191 0.769711
-2.396639 64.388180 15.114094
4.987774 59.650553 17.501237
-4.859410 58.822659 2.602221
-1.518737 64.763763 14.536483
-4.900162 59.005808 7.641244
1.935616 55.389860 2.114187
-4.536919 57.898485 2.152559
0.676491 55.045975 14.974705
-2.694100 55.787896 19.927322
4.440729 62.297809 4.818363
-4.813350 61.353391 11.316671
4.661795 58.192331 7.319029
-4.712425 61.671241 3.282214
-4.838963 58.741254 17.411254
-4.996567 59.814736 3.463761
-1.298950 55.171674 14.526217
2.408900 55.618539 9.263613
-1.501336 64.769276 5.323655
1.827470 55.345932 3.236878
-2.163067 64.507898 18.813952
-4.925238 59.138588 0.396937
-0.624148 64.960891 7.869093
-1.498342 55.229783 5.565462
4.995141 59.779624 18.633971
-0.095793 55.000918 2.700900
3.678980 56.613984 16.642001
4.035850 62.951595 11.904199
-1.947867 64.604977 5.320445
1.876716 64.634429 0.153559
1.100889 64.877299 4.639760
-0.330487 64.989066 15.789731
3.223749 56.178032 17.168199
-3.468770 56.398939 5.179878
1.816458 64.658378 19.909145
-2.091403 64.541589 17.327756
4.629944 58.112246 6.806929
2.313200 55.567269 8.636678
-3.644348 63.423263 19.691121
4.992699 60.270106 3.565465
-3.240380 63.807879 10.521066
4.442610 57.705830 6.367328
4.806411 58.622171 16.763162
-0.526028 64.972252 2.328154
-3.430228 63.637792 7.716690
4.994477 59.765058 14.498227
-4.815597 61.345372 2.390945
4.341415 62.480345 19.408276
4.237469 62.654026 5.323603
-4.922197 59.121377 0.254500
-2.951058 64.036243 19.267503
2.153134 64.512651 6.574040
-1.542457 64.756136 13.571110
-2.078911 55.452679 11.266027
-4.234740 57.341621 1.004447
1.553080 55.247323 14.302339
3.955460 56.941514 15.733675
2.355685 55.589700 2.402415
3.516666 56.445699 16.950018
-2.324886 55.573387 6.913290
-2.245664 64.467325 9.587657
-3.195222 56.154151 8.400355
0.346193 55.011999 7.458097
-1.636856 55.275521 15.132265
-4.273479 57.404355 10.505585
3.635431 56.567269 14.394199
-3.470833 56.400928 9.697483
-4.875482 61.108909 2.111027
-4.920760 60.886633 19.834283
4.999867 59.963532 0.982055
-3.456214 56.386887 0.452757
-4.983212 60.409392 5.542422
-4.993922 60.246463 11.354282
0.170738 55.002916 16.079672
3.796883 56.746743 6.520480
-4.777337 58.524516 2.709911
-3.451075 63.618022 1.063531
4.846262 61.230343 10.950213
3.864456 56.827307 15.608049
1.792317 64.667719 3.215189
-2.482497 64.340186 6.583802
-4.522359 57.867332 18.437112
-2.557617 55.703653 17.338136
-4.961527 60.619072 8.479377
2.930860 55.949067 1.860856
2.532113 55.688573 8.906899
0.572036 55.032830 15.876125
-0.126934 55.001611 18.422946
-4.507139 57.835353 19.626505
3.743072 63.315029 12.468506
-0.747584 55.056204 8.330474
-4.475767 57.771209 6.103041
-2.175415 64.501952 11.746832
4.297292 62.556028 16.788852
-0.432601 55.018749 1.459522
-4.505384 57.831703 0.661251
-1.071537 64.883831 9.016650
-4.384434 62.403484 1.424117
1.063763 64.885530 10.183159
4.720202 58.350852 8.472348
4.205989 57.296362 12.247924
3.972111 56.963170 15.981568
2.979345 64.015408 4.897436
-4.793509 58.577933 11.120227
-1.268578 55.163606 8.653504
-3.280697 56.226801 15.539053
-4.860779 58.828324 0.265483
-1.158091 64.864034 17.044534
-4.646661 61.846223 16.660024
4.721490 61.645459 9.750040
4.972007 60.528344 9.597382
-0.565245 64.967947 14.828685
2.568167 55.709951 13.963903
3.178725 56.140505 3.790615
-4.988247 60.342629 5.820122
-4.389429 62.394350 7.382911
-4.702232 58.300291 3.311866
-4.992332 60.276811 15.756251
-2.482535 55.659836 11.047737
-3.762712 56.707281 8.817891
1.389518 64.803045 14.236949
3.777128 56.723828 13.745682
4.538230 57.901318 19.366249
4.992629 59.728609 19.350887
3.153005 56.119464 18.990734
2.742089 64.181022 7.103557
-2.045139 55.437390 15.646057
-1.770922 64.675878 9.784330
-2.304204 55.562586 13.423937
-2.837594 55.883198 10.949761
-0.261218 64.993172 16.444951
-3.689937 63.374072 19.733340
2.358685 64.408696 19.319169
4.986352 59.630818 9.701528
-4.274428 57.405917 17.938162
4.541676 62.091214 18.048248
-3.149413 63.883452 13.761644
1.354842 64.812941 15.039805
3.467543 63.602242 10.575972
-0.687540 64.952503 18.501147
1.355109 55.187134 6.859145
4.999277 59.914982 7.078639
4.998333 59.870916 7.405955
4.997837 60.147047 0.249544
-2.601072 64.270179 9.766343
1.822345 55.343923 10.579045
3.629415 63.439091 2.672167
0.070940 64.999497 11.760534
-1.828130 64.653809 9.405849
2.468447 55.651808 8.945835
4.666439 61.795647 8.625044
1.232566 55.154303 3.512942
4.082767 62.886350 3.523812
1.443576 64.787075 4.565490
1.033892 64.891939 12.507979
-3.518634 63.552353 5.169688
4.368786 57.568188 2.069202
4.371326 62.427243 12.856634
4.995667 60.208121 1.436281
-2.750895 55.824766 15.400815
3.252914 63.797177 2.278976
1.882664 55.367984 16.383859
-4.950424 59.297643 18.345674
-2.527960 64.313863 0.818075
-2.391022 55.608757 19.366551
1.473823 55.222151 18.945469
-1.890329 64.628894 10.104781
-4.582842 58.000610 4.713339
4.948385 59.283419 4.618739
-4.953849 60.677773 9.832738
4.458670 57.737201 18.016338
0.538305 55.029062 18.020296
-3.405125 56.338699 0.257493
1.445083 64.786620 9.928154
1.885189 55.369011 19.507707
3.862933 56.825453 16.642075
-3.905144 56.877525 2.935277
0.255646 55.006540 13.606865
4.185031 57.264034 17.532211
-4.841476 58.750958 7.946683
0.025972 55.000067 19.638180
-0.092420 64.999146 11.329983
-4.982417 59.581047 9.700407
4.521332 62.134843 12.795486
-1.619776 64.730362 15.627244
-1.040391 55.109439 4.735410
4.965957 59.417528 0.208626
1.857676 64.642094 4.828988
-0.567315 64.967711 1.758965
-4.975997 59.510655 2.629539
-2.771913 64.161309 17.025475
-4.418852 62.339605 2.071358
2.992501 64.005613 0.252468
-2.950972 55.963694 6.727204
-3.139197 63.891714 16.237349
-1.828824 55.346463 10.711949
4.545775 57.917711 5.769654
-2.786423 64.151608 15.603941
1.615653 64.731772 8.025200
-0.227874 55.005195 14.311063
4.915027 59.082118 0.424165
4.568724 57.968557 1.185816
4.667074 58.206005 1.960392
-0.185216 55.003432 6.191294
0.206570 55.004269 15.541023
-4.780180 58.533754 6.286656
2.220701 64.479786 8.834973
-4.818293 61.335685 0.275672
0.157845 64.997508 13.260327
-0.603557 64.963438 3.823668
-4.968922 60.556606 1.390562
3.667521 56.601575 10.803655
-1.046100 55.110657 17.987853
-4.531658 57.887163 2.120062
-2.075391 55.451071 3.969049
1.349264 55.185492 1.483516
4.939177 60.777519 10.297664
-0.971015 64.904807 7.251586
-3.174131 63.863275 13.338513
4.839185 58.742110 18.401319
-2.300870 55.560856 5.347489
-2.712535 64.200257 17.397951
-3.917262 63.107260 13.400629
-4.083752 62.884956 18.671108
4.996210 59.805356 16.406847
4.940712 59.232300 14.632057
4.886607 58.941192 6.610333
2.000337 64.582428 18.281895
-1.887728 64.629955 0.491162
-1.189756 64.856386 0.755584
-4.021038 57.028257 17.229863
-0.721028 64.947739 5.701585
-4.869364 61.135470 0.152906
4.431315 62.315911 19.319793
-3.553250 56.482271 4.102811
-3.123537 56.095705 12.845721
-1.931415 55.388098 19.799477
1.172806 64.860507 7.090049
-4.901812 59.013979 8.042377
-4.878680 61.094750 15.556107
-4.281128 57.416990 13.039654
1.945709 64.605889 9.657291
-4.275545 57.407759 16.828313
1.847716 55.353932 6.443942
-2.645375 55.757125 18.432058
-1.098404 64.877859 0.493023
4.239285 62.651124 11.916242
-4.871258 58.872684 17.317146
-1.299161 64.828269 9.228237
3.998429 56.997907 8.023807
-3.372776 63.691122 6.574017
-3.562373 63.508489 19.885629
-3.546335 63.524700 2.373383
-4.632402 58.118286 8.758606
-4.400310 57.625706 6.465855
-4.783279 61.456104 15.897459
-4.773802 58.513118 12.001289
-3.814327 56.767214 0.559386
4.806426 61.377777 11.939707
-4.975475 60.494616 12.464087
0.774594 64.939636 1.762142
-1.813075 64.659695 11.246224
-0.698378 55.049013 11.735004
-1.049998 64.888507 14.079973
-4.886532 61.059151 2.538637
-4.210799 62.696139 14.834142
1.160147 55.136456 16.595806
-0.899654 64.918396 17.595185
1.802041 55.336027 12.725327
2.688668 55.784426 13.485851
-4.070005 62.904317 10.234737
-4.860219 58.826001 1.365084
-4.975615 60.493213 2.965246
4.403790 62.367834 18.610607
-4.987228 59.642846 14.522018
2.257310 55.538548 19.764897
2.990748 64.006922 13.845241
3.250279 63.799433 1.983235
3.851902 56.812078 9.945511
-2.524990 55.684397 18.420469
0.409068 64.983238 8.110700
-0.512634 55.026349 16.480585
-3.931106 63.089726 6.274432
-3.649885 56.582641 5.777310
4.701021 61.703057 13.117020
4.269407 57.397662 0.750080
-4.636542 61.871490 3.274755
-1.039208 55.109187 15.700691
-4.785832 61.447694 19.561710
-3.897713 56.868254 15.239386
-4.338557 62.485342 11.449020
3.709768 56.647744 2.615597
-4.893478 61.026582 1.478229
-3.192244 56.151679 8.739004
0.035067 55.000123 5.122069
4.694275 58.278437 13.418631
-2.241521 64.469405 16.277745
-2.855921 55.895890 5.425301
4.184625 57.263413 18.189511
-0.666521 64.955376 14.406332
3.235011 63.812440 4.928322
-0.675779 55.045878 11.847372
4.241277 57.352063 19.395153
4.900743 59.008678 13.597000
4.430831 57.683163 9.300384
2.956357 55.967637 7.319233
4.033522 62.954776 11.476196
0.603520 64.963443 15.331186
2.078675 64.547429 16.304577
3.106705 63.917702 13.661416
3.440916 63.627685 14.902126
-4.999562 60.066171 16.568366
3.462425 63.607161 13.090952
-2.518927 64.319144 13.337498
1.558703 55.249164 15.985935
1.149481 64.866076 6.722088
-1.074496 64.883181 6.501051
4.766704 61.509480 18.183837
-1.640800 55.276889 18.919010
1.544171 55.244420 8.361461
-4.706801 61.687017 17.152133
4.916781 59.091561 1.293599
-0.906204 64.917194 10.162560
4.976872 59.519637 18.550536
-2.091358 64.541610 3.345980
3.229035 63.817504 15.947300
-2.009498 55.421581 3.286651
1.498398 64.770200 10.271976
4.850407 61.213901 19.372827
-3.118570 63.908263 7.038229
-3.503681 63.567102 0.992077
-0.001413 55.000000 3.726606
-1.365363 64.809967 6.054859
4.911146 60.938429 13.724328
-4.743953 61.579529 14.714732
-1.129628 64.870723 3.403982
-1.281380 55.166982 4.397996
4.590991 61.980607 7.743766
0.551969 64.969440 8.676304
-4.784505 61.452073 11.109476
0.410263 64.983140 7.024545
-0.869544 55.076191 2.199221
-3.211873 56.168046 4.097101
-4.997676 60.152432 1.602764
2.376758 55.601021 17.081801
-4.647506 61.844096 7.731268
3.773737 63.280077 5.481889
1.447492 55.214108 1.573012
0.757948 55.057782 4.476708
-0.780317 64.938735 16.230257
-2.524121 64.316111 13.228808
-3.823083 56.777573 14.145894
4.956909 59.344978 4.650848
4.166124 62.764672 5.035974
4.319100 57.480998 6.288815
4.723309 58.359772 6.592617
-2.009451 55.421561 10.741651
-4.996244 60.193755 17.686968
-4.995912 60.202141 17.806586
-4.623758 61.902857 12.120695
-1.300580 55.172113 2.156585
3.125118 63.903029 4.294331
4.384526 62.403316 8.588305
-1.026636 64.893467 13.021306
4.969033 59.444385 11.552254
4.956311 59.340467 3.652384
-4.997916 59.855651 7.843151
-4.924939 60.863117 10.436339
-4.076807 57.105239 17.206324
-4.504008 57.828846 15.571474
-1.593840 55.260836 3.018718
-3.524984 63.546052 19.890664
-4.281682 62.582091 7.350081
-3.267943 63.784250 10.986751
-1.097904 55.122028 7.076154
4.985328 59.617238 0.837893
0.826384 64.931236 12.067064
-1.002069 55.101443 2.372087
-1.533066 64.759171 7.361444
3.879499 56.845719 8.301714
-4.999234 59.912481 6.979507
2.340029 55.581373 1.825122
-1.549579 55.246180 9.182350
-4.961628 60.618258 2.635277
-4.983156 60.410064 14.541743
1.754000 64.682252 2.803197
2.326770 55.574377 2.966378
1.776437 64.673785 18.881656
-4.840094 58.745613 1.190390
-2.808382 64.136785 19.359568
4.996155 59.803962 13.572150
1.746517 64.685048 4.193148
-0.531355 55.028314 2.461564
-0.447521 64.979932 19.197640
-3.999226 56.998969 8.390943
-4.891068 61.038007 6.666165
4.999803 60.044420 14.527376
-4.481452 62.217339 10.999190
-1.405989 64.798249 16.807388
-2.696122 55.789189 7.726258
-0.509585 64.973964 11.808206
-3.845960 56.804911 17.484446
1.663011 64.715336 9.508726
4.480773 62.218709 8.315056
-4.628458 61.891395 12.527548
-4.920801 59.113591 12.334518
2.162275 55.491722 4.552321
-4.045470 62.938396 11.355065
2.131216 55.476957 6.952587
-0.657312 64.956606 10.038784
2.005336 64.580243 8.162824
3.930074 56.908961 7.830005
-0.141942 64.997985 14.914999
4.996944 59.825213 11.051716
-0.969175 64.905171 16.611744
-4.916007 59.087383 11.592681
1.329602 64.819975 2.738931
4.971610 60.532067 19.659399
4.362037 62.443897 0.694026
1.681987 55.291399 8.515796
-2.426085 55.628031 2.029654
1.408007 55.202343 2.448125
0.389831 55.015220 3.574833
4.959410 59.364192 13.679305
-2.292594 55.556576 1.813142
-4.975687 60.492485 9.770319
1.925067 64.614555 11.614435
0.422989 64.982076 7.589854
4.937914 59.214504 8.005411
-1.047420 55.110940 9.218054
-2.143919 55.482964 5.245956
-4.878347 61.096235 18.734489
-1.632274 64.726064 19.952430
-1.677088 55.289652 15.740508
-3.687667 63.376554 8.438701
4.870452 58.869206 17.910949
2.633843 55.749956 1.662155
3.489913 63.580574 12.694371
-2.314316 55.567852 13.182593
-2.230123 55.524896 8.104882
-3.657501 63.409206 1.242128
-4.881778 58.919146 6.973389
-4.029961 62.959631 12.674795
-0.313336 55.009828 0.452567
-1.720679 55.305401 16.784281
-4.940386 60.769798 19.510881
0.530638 64.971763 16.802476
-1.215818 55.150073 19.122684
0.530306 55.028202 6.763018
-0.313650 55.009847 0.215693
-3.724448 63.335939 19.873124
3.092384 56.070985 10.069783
1.086337 55.119439 15.331676
3.831805 63.212051 10.351207
-4.956973 60.654535 14.973059
-4.741057 61.588200 3.968535
-4.641831 58.141666 15.251943
0.819211 64.932433 9.587672
4.642711 61.856135 11.406834
-0.506144 64.974316 10.962933
4.458341 57.736552 19.639047
4.801307 61.395512 19.185094
-4.729331 58.377216 6.184082
0.567247 55.032281 8.070115
-0.388661 64.984871 19.511543
-3.421840 56.354316 6.055115
-3.796108 63.254161 1.063049
-1.435945 55.210630 7.182477
0.542536 55.029522 18.390532
-4.979220 59.544619 2.406631
-0.778643 55.061001 1.956928
-0.661472 55.043948 6.643653
-0.055072 55.000303 8.899708
-4.647515 61.844072 12.350570
-0.459825 55.021189 5.542253
-3.263107 63.788421 4.667414
1.840738 64.648837 4.442377
-4.822682 58.680250 9.981553
-3.273365 63.779561 17.136329
-4.983514 59.594302 3.077152
-3.475166 56.405112 19.677731
-1.568947 64.747463 8.573045
0.095454 64.999089 19.022429
3.854902 56.815706 17.861310
-2.662798 55.768038 11.105969
-2.737328 64.184141 17.564888
-0.348375 64.987849 16.631948
4.741106 61.588054 2.950309
4.928504 60.842524 2.093446
4.141508 57.198588 14.773437
1.424772 55.207295 8.008415
-1.755405 64.681725 9.546599
0.350633 64.987691 7.498570
-4.901970 59.014766 2.890392
-4.726457 58.368864 15.864136
-4.941105 59.234831 9.546741
-0.462817 55.021466 10.432926
3.997631 56.996843 5.498080
-1.196957 64.854616 4.980295
4.999559 59.933573 9.518808
-3.839145 63.203274 8.867887
-1.631810 55.273776 14.963964
0.497937 64.975144 11.243779
4.653353 61.829290 14.272118
-2.655399 64.236609 1.349030
-4.904157 60.974293 4.807456
4.479395 57.778510 5.732117
1.821386 64.656453 14.846819
1.417763 55.205217 12.224086
4.392924 62.387931 9.931097
-3.130411 56.101215 10.338810
2.014710 55.423873 3.137235
-1.056343 64.887140 16.685624
4.981446 59.569656 19.047024
-1.950653 64.603798 2.366672
-1.395152 64.801411 17.453722
1.923202 55.384668 6.485036
-1.443737 64.787026 16.951386
-4.236570 62.655461 10.675543
0.256074 55.006562 9.029303
0.531267 64.971695 2.396554
-3.427103 63.640737 18.100059
-4.474487 57.768640 5.131953
4.731516 61.616403 14.775023
-2.021457 64.573151 0.837329
1.652597 64.718996 5.692367
-4.481202 62.217843 16.318648
4.809996 58.634740 7.107582
-1.236675 55.155350 1.836307
-0.419406 55.017621 4.412267
3.064407 56.049125 15.242078
1.206082 64.852357 12.174682
-0.702978 55.049664 9.358619
-2.910458 55.934384 1.659986
4.264036 62.611129 6.381192
-1.853394 64.643805 16.152805
-0.591632 64.964874 18.196047
4.927940 59.154181 3.393785
4.938517 59.218306 1.040538
0.427294 55.018291 19.837213
4.970959 60.538113 4.818973
-4.516846 57.855682 0.777126
4.904784 59.028871 13.090937
-4.829812 58.706587 10.516393
4.895627 61.016285 10.219207
-4.544141 57.914146 2.810919
4.934153 60.808787 12.503744
0.104670 55.001096 10.788699
0.548068 64.969871 17.750504
0.443752 55.019731 19.250372
2.355354 55.589523 13.276777
-4.565353 62.039007 8.085130
-4.946842 60.727152 5.455150
-4.986385 60.368733 3.507876
4.917013 59.092815 2.445911
-4.989682 59.678942 14.984943
3.428929 56.360983 12.613316
4.727843 61.627114 12.244088
-0.997712 64.899446 15.311988
2.878285 64.088456 5.075103
-4.824842 61.311829 5.589012
2.338390 64.419495 5.552319
1.598666 64.737538 15.703535
2.698896 55.790967 10.862287
-2.623902 55.743812 17.244917
-2.560583 55.705420 2.048645
4.475146 57.769963 1.509864
4.602719 61.953197 7.995060
4.536178 57.896886 17.281046
-3.944237 63.072945 9.976007
-0.275644 55.007604 2.006106
4.059078 57.080431 6.060698
1.946583 64.605520 18.072813
3.918082 56.893775 15.393171
1.517637 64.764114 0.390306
4.051931 57.070520 10.547522
-1.947212 55.394746 8.261068
-4.510555 57.842479 12.026823
1.036724 55.108660 9.608040
-1.670120 55.287177 17.975430
0.959572 55.092942 10.898902
4.581793 62.001792 19.479926
-3.786264 56.734391 16.186867
3.410330 63.656453 10.885866
4.962675 60.609798 16.599126
-2.940789 55.956269 16.728086
1.564176 55.250963 1.068458
0.787496 55.062404 17.916414
-3.229923 56.183248 10.890778
0.672155 55.045385 9.202591
-0.709793 64.949363 15.198345
0.518026 55.026908 11.423704
4.949301 59.289772 14.414141
3.846770 63.194114 6.140718
-3.241582 63.806855 5.354844
1.121517 64.872597 8.824431
-3.337978 63.722621 19.568368
-4.978133 60.467108 2.824966
-4.617211 58.081311 10.597227
3.016500 56.012429 6.710220
4.727715 58.372513 9.249394
4.764626 58.483973 7.435480
-2.843467 64.112748 6.235949
-3.515640 63.555317 7.277615
2.129070 64.524054 12.694956
-2.753332 55.826373 18.724154
-4.754695 61.546893 7.711943
3.901596 56.873093 1.645924
-4.979589 59.548678 11.484431
0.280533 64.992124 13.769424
-3.729091 63.330748 16.861576
-4.495902 62.187891 0.137162
0.245749 64.993957 14.764259
4.556921 57.942216 19.636705
3.698064 63.365163 4.968402
2.275908 55.548007 15.674278
-1.031459 64.892453 4.507207
4.298095 57.445321 2.161073
-0.315842 64.990014 3.201851
-1.879498 64.633302 14.182950
-2.952128 64.035461 17.442595
